ply
format ascii 1.0
element vertex 1469
property float x
property float y
property float z
end_header
3.5571778 -7.6505723 -0.3944422
1.5344808 -10.4553471 -0.4908974
1.2353154 -10.4264765 0.1543371
6.2254915 -6.7716198 0.2150719
6.9823732 -6.3388577 -0.7713261
5.2486372 -5.9123082 0.7075124
6.3585095 -6.7452321 0.3356710
5.2838783 -6.9439716 -1.4412653
4.6195416 -12.1862230 -1.5626038
4.9921637 -11.8277845 0.5194107
8.9302454 -7.8636823 0.8860896
9.9533720 -7.3442760 1.3740512
6.3261385 -9.2832546 -0.7655236
8.5591087 -8.7137089 -0.6472102
4.5099106 -4.1217093 -1.4293246
4.8734298 -4.0418119 -1.4445798
1.4055680 4.9870133 0.0897609
4.9990935 -12.0854635 -1.5180819
4.6012678 -11.2629080 -1.3994323
4.8402662 -13.3438435 -0.4763628
5.0558944 -11.6228533 -1.5427403
-0.4306958 4.7442126 0.3588032
-1.9227695 0.4600178 -0.7726726
5.0153747 -11.4560041 -1.5251167
4.8348045 -11.8263016 -1.4814134
4.9192882 -10.5845785 -1.4742376
4.4867578 -10.2627630 -1.4880564
4.3164907 -10.3387108 -1.4247946
3.9780042 -10.5653687 -1.5261755
4.5254755 -11.0540924 -1.4897012
3.4240386 -9.0921059 -0.1093983
4.6230173 -11.6139736 -1.2407335
4.8346038 -11.6503639 0.5516530
4.1248865 -10.5321970 -1.4659482
3.4683855 -9.4226866 -0.0748725
4.0612311 -10.5799561 -1.4677836
2.5483031 -10.3288641 -1.2856311
4.9436178 -11.6210308 -0.6272923
3.1134775 -8.3540020 -0.6316283
3.5906792 -9.7739992 0.5919685
3.4445252 -9.6452904 0.6397258
3.3289306 -9.2558098 -0.7934241
3.5169895 -8.2610703 -0.0228980
5.5980926 -4.8083801 0.1434422
5.2261448 -6.8751688 0.4606518
2.7082722 1.0241126 3.0483031
3.4827130 -1.1602637 -0.1215115
8.4395151 -8.7868414 -0.6415383
10.3953972 -8.6861401 -0.1487991
3.1522937 -10.5463991 -0.4572153
3.3438025 -9.0952358 -0.3795285
3.4577711 -9.2912617 -0.2239270
1.6162136 -9.4785852 -0.6433918
3.8990004 -9.0288696 -0.4842419
3.4377587 -9.2365513 -0.4118639
3.4882829 -9.2619514 0.3958191
3.6184340 -8.1940441 -0.2646195
3.7293861 -8.1326342 0.2604485
4.8210301 -6.5635848 -1.4795198
5.2571797 -4.3197904 0.5704572
4.7658019 -7.0464759 -1.4258475
4.7743731 -6.2850451 -1.6003639
3.3638771 -5.2531877 -0.6795062
5.2543969 -5.9902925 0.2000954
5.1321287 -6.5803194 -0.3777414
8.7308140 -7.1066008 -0.5135397
5.4805884 -7.7402854 -0.0792874
5.2605577 -6.8969450 -0.3959572
5.8702183 -8.9191284 -0.8112568
8.5441704 -6.9132442 -0.2413739
7.7953482 -7.1792302 -0.7755873
6.0457969 -6.9508595 -0.8562542
5.4119787 3.3305957 0.1706084
0.1564803 3.4648306 -0.5290753
2.6731210 -0.1298821 -1.3529094
2.7542102 -0.4101447 -1.2500854
1.4869790 -3.1659830 -1.3134815
0.9580542 -2.9281123 -1.2903888
-0.3952010 1.2500849 1.8881328
5.0125613 -11.8231897 0.5772202
4.5046339 -2.9753501 -0.7129876
9.3579216 -1.7301328 -0.1322562
5.0579386 -6.5358591 -1.1263534
5.4966984 -6.8645320 0.4577782
5.2131824 -4.1822696 -0.5504286
3.2597709 -2.7677155 -0.4202185
3.1944990 -2.2846844 1.5602440
3.7252529 -8.1694365 0.0060727
4.6350331 -12.3594904 -1.4508520
4.8414359 -11.6333942 -1.4743842
4.8383112 -12.2879391 -1.5334785
5.0404773 -13.8302221 -0.5159553
7.9919090 -8.0287485 -0.6688569
5.2669301 -3.4722633 0.4483901
3.7628837 -0.7777223 0.8157214
5.4315662 3.5542455 3.3189008
3.4150782 -10.0922966 -1.4599371
2.9966156 -10.4731398 -1.4314731
4.5357842 -10.6889906 -1.5315217
5.1365399 -11.9382620 0.6317291
3.2711940 -9.9853687 -1.4477938
3.4368696 -9.6003952 0.0293901
3.5907412 -9.2995930 0.2743925
3.7811368 -9.9409695 -1.4737712
3.3952687 -9.2284946 -0.4020514
3.8327811 -11.4424047 0.5830266
3.5147171 -9.1129293 0.0446019
9.4976988 -8.3714581 -0.5180008
10.9310913 -6.2161345 -0.6581975
8.8465424 -8.0361204 -0.7666206
4.5155978 -2.6728961 -1.3797019
5.3232040 -1.8483728 -1.4669749
4.0744185 -3.2723508 -1.3797519
7.6762648 -6.7327714 -0.8265746
3.4559352 -10.3446026 -1.4366297
3.4658549 -9.4538403 -0.0489735
4.9636822 -11.7544889 0.5987917
4.8657980 -11.1572409 -1.4687983
3.7659581 -10.7690935 -0.8548573
3.4715610 -9.3932247 0.0310719
3.4812078 -9.3995237 0.0831023
3.4669955 -10.4252806 -1.4385599
3.6721466 -11.3101950 0.4878435
3.3742003 -9.2974014 -0.5479115
3.4779508 -9.2543421 0.2361306
3.4688940 -9.3699837 0.1183698
3.5012474 -10.6180935 0.4346080
3.3887281 -9.3479252 -0.5336782
3.7597563 -10.6605225 -1.5830199
3.7190423 -10.4803610 -1.4645115
3.7697258 -11.4431190 0.4101183
3.5736935 -11.1940002 0.4681300
3.1260834 -10.2788925 -1.4030546
3.1339693 -10.5007639 -0.5282567
3.5514112 -11.3870602 -0.1787095
3.3263814 -9.6044493 -1.4565504
3.4802606 -9.5475044 -0.2177758
3.2062261 -2.4021974 -0.4373316
8.3827677 -8.7495794 -0.6027604
11.8735876 -8.5390005 -0.4889607
7.4892640 -6.6230898 0.6739891
8.4855824 -8.5764256 1.1773615
8.3867683 -6.9581919 0.0348683
8.7249584 -7.1152067 -0.2695209
8.2556095 -5.3982310 -0.1762488
6.3074017 -9.2467079 -0.9705707
7.5984497 -6.5710292 -1.2931441
18.2267113 -8.0214214 -1.8666171
3.3349395 -9.3461266 -0.5491431
3.5348015 -9.5003204 0.2001869
3.8207202 -10.7488356 -1.4326274
3.3390901 -10.2044010 -1.4274435
3.6859105 -10.0504618 -1.4827327
3.4340692 -10.5448418 0.4575369
3.4884088 -9.3295822 -0.4758376
4.0596094 -10.0336695 -0.9343005
3.5682247 -11.4272203 0.1068364
3.3709695 -9.2667274 -0.7511585
3.5157056 -9.5914698 -0.1387338
3.4690008 -9.6219082 0.0429486
4.1102753 -10.2835245 -1.4330194
6.5888848 -6.6457891 0.1710228
5.3334713 -1.2691848 0.2301403
5.5688558 -0.7885918 0.7161008
11.6084166 -7.9236221 1.1067758
12.9302244 -8.5724173 -0.3124373
7.3082285 -6.8296676 -1.1684421
6.2527122 -6.9891934 -0.3021738
4.8896346 -11.2063885 -1.5561655
5.0191555 -11.2223816 -1.5079882
4.5402193 -11.5876226 -1.4723142
4.9428906 -11.6805372 -0.4321459
5.3058715 -5.7555504 0.1342539
3.1798584 -1.2667049 -0.8226839
5.2297616 0.7110041 2.3889654
3.2217922 -10.6365204 -0.3513137
3.4639764 -9.6143112 0.0354481
3.8031523 -10.0316553 -1.4419488
4.0392785 -10.5644855 -1.4510480
3.9910314 -10.5344515 -1.5270339
3.8821409 -10.6272230 -1.5006043
3.4958546 -8.6141949 -0.2410762
3.3869524 -9.1045523 -0.3496066
4.7294350 -11.0995884 -1.5426329
4.9038801 -11.5922260 -0.7498369
4.7003856 -11.7042351 -1.4904460
3.1768281 -10.5644789 -0.5167789
4.8995180 -11.6524038 -0.4939510
5.0327134 -9.7719727 -0.0963611
7.9419651 -7.1137714 -0.3666866
3.4331496 -9.6064091 0.0499104
4.6383657 -11.6356907 -1.2316605
3.7067106 -9.6745081 -0.0115477
9.2727671 -7.1552052 0.1150443
4.2000489 -2.4172921 -0.5281422
2.5637555 0.2776440 1.3597732
5.1309485 -3.0605726 0.4209524
2.8462462 3.2125454 2.1676903
5.0802608 -6.4571896 -1.2385583
4.2530088 -6.7180524 -1.3984331
5.2527628 -6.9180818 -0.3923147
7.7865591 -6.6318159 -0.5925929
3.2661386 -1.1256126 -0.2296338
2.9662325 5.1821985 2.3579524
5.1035900 -6.8642969 0.6837369
5.2719798 -4.9642038 0.7041280
3.4308558 -3.1435156 -0.9544575
4.0903263 2.1846330 1.1074365
3.6130152 -2.1795082 -0.3266592
4.6156678 -6.9970603 -1.3732728
4.7977977 -7.3392301 -1.3743541
3.9090188 -6.7413874 -1.4060105
3.7114408 -6.2307796 -1.2347157
3.6740253 -6.0219917 -1.1827313
5.3026218 -6.8397431 0.5512405
5.1089668 -6.7914104 -0.2737730
5.2918520 -6.8395753 0.3093195
4.6125879 -2.7831230 -0.7571597
4.0878801 0.1496901 0.9822075
2.5550716 3.0478075 2.0245123
5.1007938 -4.6119270 0.0907886
8.3860331 -6.7970233 -0.8349954
3.4594417 -1.6242764 -0.5973657
6.1378837 5.0347390 1.1980940
5.3229790 -6.8766751 -1.4803209
4.5126166 -11.1708250 -0.5958471
3.5126572 -9.4254122 -0.1476559
3.6554368 -12.5958338 -0.3955327
4.8359747 -11.5600700 -0.5453233
3.4707551 -9.6176500 0.0543689
4.0404377 -10.5878553 -1.6922210
3.2775915 -9.8819380 -1.4465841
3.6092918 -10.6508932 -1.5343430
10.5193481 -8.7691431 -0.1305635
9.1750135 -8.9525290 -0.0909042
11.5041056 -8.7977867 -0.6462054
12.0494175 -8.4370928 0.0647585
8.3610659 -9.1341352 -0.7660423
5.2787623 -5.8206372 -0.0822887
2.5709772 1.2607204 3.0728745
3.5413475 -5.3917875 -1.2941873
3.0870638 -10.4400988 -1.4193558
4.7342081 -10.3745422 -1.3143659
4.0619330 -10.3161478 -1.4533355
3.1396463 -10.3379173 -1.4686557
2.5635891 -0.5135362 -1.0232921
4.4925704 -4.6087317 -1.4308501
13.2690248 3.0667293 0.6050367
0.6424021 -2.9938543 -1.3334118
-4.1981559 0.4858980 1.5535599
0.1242026 -0.3816268 -0.4723566
0.9456310 -2.9297886 -1.2964926
-1.3984835 0.1973099 0.2014176
1.7966874 -0.3108694 1.0442597
-1.3577640 -1.7748113 -0.4270979
4.2084203 -0.9021081 -0.4178270
-0.8583441 -2.3763492 -1.3449161
4.8955688 -6.9841013 -1.4252151
5.2970047 -6.8446326 0.5616557
13.2090874 -9.6258039 -0.4087391
11.1136761 -1.8562528 0.7706050
9.0162163 -6.9375567 -0.2854406
10.4656601 -5.9702692 -0.7381033
8.4257917 -7.2658219 -0.4850037
6.9832139 -8.2874813 -0.5627251
9.1329470 -7.4825344 -0.0240701
3.3028316 -10.2076483 -1.4517590
3.3370416 -10.3167009 -1.4335604
3.3619101 -10.0844488 -1.4736807
3.3858666 -9.3433456 -0.4948548
3.4107943 -10.4760370 -1.4340115
4.9070587 -11.6787081 -0.9103549
4.8464417 -11.7946453 -1.4963566
9.4672451 -7.5824671 1.2576954
10.1872358 -7.1880121 -0.0668386
7.3733521 -8.6273584 -0.5354491
8.5802469 -7.9644213 0.3426497
4.8901772 -14.4639416 0.1690370
3.4755316 -4.9899158 0.6219061
3.6611464 -7.7766876 -0.1400435
5.2544351 -3.3906505 -1.4955040
3.1526651 -10.5251770 -0.4916782
3.4821758 -9.4032402 0.0788460
4.7220702 -11.4158344 -1.7796324
3.4605350 -9.5897503 -0.1081025
3.8094344 -10.7060814 -1.4466203
4.8544192 -11.5397682 -0.6146856
3.8723552 -10.6080637 -1.4616276
3.3125460 -10.5297756 -1.4558208
3.1721961 -2.6032445 0.3520050
5.3628879 -5.1872530 0.4530606
4.6855907 -11.0327883 -1.4970325
4.7114573 -11.1968365 -1.4566325
4.7103219 -11.4209805 -1.4766781
7.3292990 -8.6657619 -0.3949433
13.3238602 -8.3042469 0.4736613
8.0829258 -8.8875780 1.1814259
10.2477379 -7.2663741 -0.6153762
4.0965147 1.6232266 3.2057838
5.4189577 -5.1482897 0.4175998
6.7201147 3.5357666 -0.0907747
2.6422250 0.8481075 2.9434917
5.3762012 -5.3180876 -0.8131633
10.1029730 -7.3651681 1.1140507
5.1885657 -6.4554224 -0.3959149
7.8225708 -3.8484688 -0.0948800
6.9611955 -5.0521493 0.2039922
4.8904324 -11.6391983 -0.6938017
4.7118483 -11.7015362 -1.4614680
3.2884257 -10.6045122 -0.3558465
4.8846631 -11.6751366 0.1810780
4.0029521 -10.5090599 -1.5400852
3.7254241 -10.6268797 -1.5441896
3.5655353 -10.5817595 -1.4187810
3.2378924 -10.4533873 -1.4388577
3.9634061 -10.7703028 -1.4547628
3.2789648 -10.4395676 -1.5516009
3.7408059 -10.6525173 -1.4371486
5.0620232 -11.8104639 -0.5188943
4.5860772 -11.4203539 0.1586654
3.2511375 -10.1728754 -1.4408417
3.4619300 -9.6435966 -0.2010736
3.6150897 -9.8004723 0.0722108
-0.9907162 3.9558141 -0.5107636
-0.7759843 3.4490385 -1.3874503
4.8908877 -10.9614658 -1.4868097
3.7382982 -7.9612870 0.1935940
3.5871575 -5.2625351 -0.1333119
5.3374329 -2.6590531 -0.0519109
4.5087490 -2.9663332 -0.7125703
8.6025658 -7.1757760 -0.4953319
11.5284386 -2.1853418 0.6367880
3.5129626 -8.6165104 -0.1848464
3.5677676 -8.2160931 -0.3688322
3.3772597 -8.9093246 0.1574054
3.0435731 -8.5761766 -0.7035457
3.3575737 -8.0357389 -0.2098343
2.8097935 -10.0552034 -1.4629365
3.6027303 -8.0696802 -0.4095186
3.0300858 -9.0253239 -1.0627671
3.5470684 -9.4016676 -1.3359140
3.5087860 -8.6155310 -0.3861146
1.9693398 -2.8833477 -1.5362743
-8.3984489 -1.6923648 0.1624980
0.6144534 -2.9959686 -1.3472718
0.3854633 -2.4922726 0.0451856
-4.5391665 -1.7746038 -0.6998450
-0.8983144 -2.3298595 -1.3788769
0.3061824 -0.9053351 -1.3849033
2.0836504 1.8722186 2.9805636
9.0407543 -2.0584691 -0.2919221
3.5375829 -3.9422579 -1.4537638
5.1286635 -4.1276951 0.0934423
2.7242262 0.4728190 -1.3309848
4.1176543 -0.3489246 0.0665993
5.4507184 1.5587014 1.6360463
5.1803026 -3.3559437 -1.4418935
4.3828778 -4.8990321 -1.4555383
4.5718403 -3.2626345 -1.4712038
3.2793040 5.3579526 -0.5309840
3.1792171 -2.2611623 -0.4436894
4.9216599 -11.1350222 -1.4790132
-2.8999112 -2.8899524 -2.6399727
-2.9998739 -4.1248522 -1.0526677
0.8675957 -4.2886395 -0.7965514
-11.2433910 -0.4862904 3.2675488
0.3602377 -3.6999841 -1.3618665
-0.8256020 -3.4591610 -1.7038772
-1.5112019 1.1165478 -0.4996045
3.6699545 -2.6980994 -0.3050891
3.7634351 4.5605259 1.6504095
5.1490030 -4.5334196 0.1705227
7.8751988 -7.9852686 -0.7143415
11.7379112 -6.1938119 -0.4763637
7.0959010 -8.5520020 -0.5821124
4.4476151 -10.7124529 -1.4308467
4.5440688 -10.2775507 -1.3984884
3.5256207 -9.4076881 -0.1628584
4.4116278 -10.7334404 -1.8455756
4.7126408 -10.3630733 -1.6845946
3.4229288 -9.6032457 -0.0160924
3.4494836 -9.5512733 0.0229898
3.5021589 -9.6217642 -0.0220460
1.6705475 4.7892861 0.1094559
4.0101571 2.6112971 3.5281956
5.2069907 -3.5969715 0.7074353
2.2690647 2.0610945 3.0233254
4.9999685 -6.1606560 0.7492072
3.4830770 -5.1632857 -0.3224292
4.0448475 -2.9165320 -1.1291445
5.2497559 -4.1351476 -0.5766976
3.3914974 -3.8710256 -1.4423138
3.2027836 -3.5799425 -1.4358366
5.3025126 -5.7990532 -0.1972980
7.4459968 -1.6261605 1.1429036
7.6515403 -1.2742811 1.2172116
0.6491252 3.0806787 -0.2112291
2.1327610 0.9313179 -1.4381270
2.2275259 0.7542692 1.4197148
8.6746197 -1.6782631 1.1100901
1.2210996 1.1101811 1.9458691
11.4443092 1.8963252 -0.1943795
11.4966574 1.9715465 -0.0818279
2.1476128 0.7922682 1.7964302
5.2439480 -4.9913182 0.1880638
0.3003359 -4.9905596 -0.3937971
-2.2322431 -4.2875905 -1.3369129
3.0241375 -6.1383471 0.9434775
1.5065445 -4.5417004 -1.2335958
4.0994663 -5.7262502 1.0772047
0.6368214 -4.3848786 -0.6790337
4.5406179 -2.9786510 -0.7830821
-1.5036525 2.3428273 0.1388730
4.1452427 -3.0615962 -1.3437124
5.6369147 -1.9826722 0.3829255
2.4089839 0.5679045 2.8970821
3.6390252 -4.1330371 -1.4557372
2.1507227 1.2182080 2.3366456
2.1546245 -2.4893763 -0.7165754
5.5848241 -1.0919168 0.3614655
3.0632358 -1.8869276 -0.4314950
2.6768296 0.5536442 2.0629122
0.3963945 3.3109012 -0.9256440
-1.6188825 5.1518846 -0.2405748
-1.8150932 3.5259957 -0.5048738
2.4009123 1.7112411 1.8514864
5.4293976 -0.5204466 0.5345172
-1.2639772 0.6336174 0.7457041
0.3270575 0.6942066 0.7679909
-1.0710613 -1.3221360 -0.0139202
-1.5114005 -0.8087818 0.2669972
-2.6108768 0.9633870 1.4009043
-5.3585095 -2.2322624 -1.3821720
-1.3152401 -2.3503025 -1.2176753
-1.3742946 1.2769526 0.6163114
0.9300954 1.2885284 1.5343914
-1.3544883 2.8415728 0.1689704
-1.3413616 2.7851076 0.1365912
1.8022118 3.4964211 0.0936331
2.4726160 -3.1140327 -1.0559880
-2.3729084 1.8986117 -0.3314940
2.9428082 1.7577779 -0.5403329
0.3826664 -0.0703235 -0.6118204
-0.8881695 4.0181766 -1.2277708
3.5541294 2.0224607 -0.1960246
0.7045847 -3.1291921 0.1351725
2.1805897 -2.4624479 -0.7787369
0.4173755 1.9625626 -0.8253865
2.6234968 3.6873522 2.9188466
-2.5078406 7.0700336 3.7719967
1.3515164 1.3879230 1.9062839
1.1201700 -0.4645337 1.7867069
5.5664654 -2.7414718 -0.1166797
1.3356191 -0.6756473 1.3525112
-0.6337138 0.5519213 1.0384995
2.7434175 1.1165708 1.8616275
1.2475269 4.9095149 -0.1670946
2.2181840 1.5311831 -0.9805353
2.0980074 1.4112706 -1.4093742
-0.8798896 4.8434286 0.2911918
5.3688331 -5.6077800 0.6677194
-1.3552991 0.5441134 -0.4342082
-1.3643869 1.3593708 0.4117095
-1.3910496 2.0014758 -1.3233901
-1.6884638 4.7193036 -0.0013689
-1.1739111 4.8843036 0.4608647
-3.7265232 1.8218783 1.5378890
-6.0143552 0.7769215 0.4868513
-5.6230283 0.9896905 1.5318239
1.8844485 -2.7368112 -1.4446659
1.2066565 1.2495636 -1.3742478
3.6646504 0.6351454 2.2084601
1.9734123 4.1635628 3.3079684
5.4288411 0.5329132 -0.3855303
3.5433078 -5.1331348 -1.4960818
5.1692467 -4.5174813 0.2695912
5.2999773 -5.7750807 -0.2036302
5.4444857 4.6613512 1.3101461
4.2012858 -3.3990092 -1.2731483
3.6711893 -2.6913042 -1.3403326
3.5080948 -3.3227649 -1.4940780
3.4050422 -2.3625188 0.6156052
2.7238455 -0.4418436 -1.2422240
5.7413712 -0.6917564 0.3539926
6.6711078 0.5580083 0.6703701
-1.3672386 0.6397949 2.3269196
-1.5091357 1.0596035 -0.5170154
1.1236851 -1.7887729 -2.0968435
3.3315868 3.7152908 3.1601174
4.9218674 -2.9891157 -1.5160019
3.3494062 -2.8564310 -1.4666804
-1.0651112 -1.5017726 -0.3395347
-1.1772740 1.0393140 0.6555837
1.1861609 -1.5313805 -1.4576983
-1.3052468 -1.0448005 -0.2838697
2.8571720 -2.4043844 -0.5869143
2.1706519 -2.4833760 -0.7100864
2.6632233 -0.9784312 -0.9756808
11.0548697 -0.0536618 1.5775332
4.9748073 -4.3361840 -0.3815350
9.6099100 -0.5484395 1.3477334
4.5280051 -3.9882414 -1.4960556
2.4578388 -2.9196155 -0.7855958
4.0224686 -1.1968490 -0.1903773
2.0498543 1.1315057 2.3962011
9.9383726 -0.1953576 -0.2552331
5.0001335 -4.4423599 -1.4150774
5.3619666 3.1305487 0.4331375
-15.1152601 -10.7714128 2.2431102
-7.7472620 -5.0693183 0.6256143
-10.2425241 -0.0181755 -1.4451591
-7.6395512 5.5676179 2.5323675
-9.2725086 -0.5174721 -1.2094642
-9.4132500 -0.0832659 -0.1014989
-9.3243399 1.5350757 -0.5343779
-8.7419157 4.9001555 2.0174468
-7.9485950 5.5985785 2.6781657
-11.9209223 1.9170629 0.3161591
-12.1051216 0.1572653 0.3343594
-12.0857286 0.1208318 0.5393104
-9.2874012 1.2716812 -0.6005116
-9.3299713 4.2080159 0.6745785
-9.6455154 5.5752902 -0.6790352
-11.7603483 -0.3944161 -0.1336667
-8.4948826 -5.7545371 -0.4630037
-14.3865747 -2.5334489 -0.8294955
-15.4195013 -5.7924342 -0.7230170
-7.4540000 -4.9223042 0.5832066
-15.5094357 -2.1497831 0.3551883
-12.6830311 -2.1427884 0.6095474
-8.5578222 -5.4697185 -0.2322042
-10.0630579 -2.1404674 -0.3920178
-13.6202784 -2.4704039 -0.5490602
-9.8340836 -2.1729796 -0.3736316
-8.7816496 -4.6205983 -0.1886856
-8.6536045 -5.3044162 0.0679833
-8.4805470 -3.7986181 -1.4069000
-16.0357647 -4.1207237 0.2206968
-18.1590519 -6.9510136 3.0252798
-8.0883961 -5.5574489 0.2362395
-9.7837992 -4.6994567 -1.3561409
-7.9844236 -6.1102405 0.0403668
-9.7401810 -2.1786261 -1.3978372
-15.9965744 -4.6775479 0.8351381
-11.5382328 -2.4730034 -1.3901466
-14.1426907 -5.2014794 -0.3501093
-15.3838482 -2.9127014 1.9901878
-15.0060911 -3.1167660 -1.2760419
-15.9271631 -3.2323961 0.8922666
-10.1260929 -4.7349806 -0.2534858
-8.1207294 -5.6758585 -1.5813689
-16.6439400 -3.6671884 0.3937379
-15.7891121 -4.3655529 0.1863801
-15.8524265 -3.8955326 1.3096389
-8.6311235 -4.8619471 -0.2377392
-9.0144777 -3.3477850 -1.4254609
-16.0410156 -3.0500534 0.1759489
-10.9179268 -2.9946442 -1.8294042
-9.4257221 -4.5353823 0.3812252
-15.5113182 -2.8899899 -0.2876429
-9.1367254 -3.1212409 -1.3468345
-15.5109320 -2.9058039 -0.2820801
-15.9669619 -3.5249031 0.8837178
-15.7045488 -6.8250947 -1.0565870
-12.0759935 -6.1951771 2.0210485
-15.4420214 -2.2242887 -0.3957262
-9.6880350 -2.7384515 -1.5099678
-15.6716337 -2.8716187 -0.2875187
-13.2830057 -5.3712473 2.5152273
-8.9498854 -4.4925323 -0.2992368
-9.7025127 -4.8963318 -0.4803141
-8.2668381 -4.3720813 -0.6581679
-9.7556076 -4.6673079 0.1039720
-8.5679312 -4.9860888 -0.4983952
-15.5005016 -2.5280325 1.0474577
-9.4123220 -3.7461019 -1.4373350
-9.0347376 -4.1724381 -1.4927905
-8.4404955 -5.2645555 -1.5792477
-8.0373211 -4.6456385 -1.2565277
-7.7551169 -4.6789622 -1.2804245
-7.5798130 -5.2432680 0.2603193
-8.0414858 -4.6519985 -1.2544423
-10.5317307 -2.7119482 -1.4153367
-9.5103569 -4.6774354 0.1717389
-8.2163219 -5.3694372 -0.1673944
-11.5732956 -2.3091207 -0.4843279
-17.2557850 -6.6892743 2.7390192
-7.6572208 -5.4172511 0.2740671
-8.9973650 -5.3142982 0.6325983
-8.3267355 -5.4326124 -0.5473832
-12.6555223 -3.1757560 -1.4071921
-15.6145554 -4.5702624 0.8349705
-7.7733202 -5.0959845 -0.1996707
-15.8203573 -2.7994158 1.3087456
-8.4064398 -4.3192210 -0.2692405
-9.1452312 -4.6731396 0.4074754
-9.7421455 -4.6624393 -1.3652558
-8.2237024 -5.4093451 -0.1688366
-8.5928507 -4.4635768 -0.5010685
-15.2931871 -5.7661557 2.7555020
-13.4959126 -2.5580838 -1.0810465
-14.6028757 -3.1573949 0.0753535
-9.1483536 -4.6651163 -0.7347125
-9.7473946 -2.1984251 -0.9535613
-15.6807775 -6.5264411 0.9924752
-12.4497633 -6.8195667 1.4342732
-9.5513201 -4.8481264 -0.6359068
-16.1240673 -1.0753149 1.0220004
-9.3303242 -4.7731137 -0.0374688
-10.0852299 -4.6866302 -0.8339240
-12.5738783 -3.4534624 -1.3548604
-15.6453199 -5.4949059 -1.3992391
-16.8171673 -8.0563173 3.8478725
-9.6982098 -2.3982594 -1.4197099
-14.9341087 -3.1323140 -0.8921949
-18.0160847 -7.7439709 2.9202182
-9.4670773 -2.1373825 0.4213764
-10.0365419 -4.7018795 -0.2524383
-14.6806183 -4.6946125 -0.8679845
-10.5790825 -3.1950309 -1.4144465
-11.5031700 -1.6673672 0.6214381
-10.9297323 -2.6679373 -0.4496478
-11.5134420 -1.7757504 0.3899120
-11.4416161 -1.8532046 -1.0964333
-23.5699234 0.8245003 0.0422480
-13.2344151 -2.2825751 -0.4172791
-9.7009840 -4.5811687 -0.5822123
-9.7647495 -2.1820707 -0.3656120
-17.1725616 -1.3410728 1.8039740
-12.1534090 -7.7445631 -0.0989537
-8.6743402 -5.0613723 0.1727196
-10.5747929 -2.5257378 -1.4156029
-15.7539711 -4.9121261 -0.3012516
-8.2665892 -4.2120080 -0.7076923
-9.4904804 -4.7290363 0.1750994
-10.9283514 -2.5252066 -1.2463794
-15.1762323 -4.3687277 -0.9001756
-9.4282398 -4.4952531 0.1234108
-10.0424728 -4.6655936 -0.8176914
-8.3050537 -4.3431501 0.0055003
-15.3733320 -5.4574671 0.1323751
-11.6126690 -6.9514413 -0.7796391
-15.1828957 -7.7912745 2.8109357
-15.1788664 -3.5080612 -0.7387228
-14.2486591 -7.2387700 2.4919415
-16.6920185 -1.9467913 1.9858661
-11.7471819 -2.3300180 -0.4973803
-12.0832863 0.1113495 0.5951653
-11.6926384 -0.0404791 0.6695758
-11.7124224 -2.0819087 0.3717648
-10.7449903 0.8395469 -1.3787200
-9.2623310 1.6533204 -1.1314651
-9.1230507 3.3062551 0.0823388
-9.3528080 3.3616779 -0.9347759
-9.6062593 7.9419975 0.9213887
-9.5875664 -3.6540365 -1.4305756
-15.5183344 -6.2417850 -0.2624299
-15.6098366 -2.5776246 0.3965286
-9.8714695 -4.6708555 -1.0184183
-9.6576996 -3.0525372 -1.3877310
-15.6525555 -2.7064300 2.1435122
-15.6180820 -5.3648334 -0.4234603
-10.7533531 -5.9816537 -0.5180775
-9.3209124 -2.1731493 0.6174148
-28.1541958 -10.8595428 5.7667756
-12.9516211 -7.2209988 1.6178412
-15.4994860 -2.5225265 1.0406990
-12.9044590 -3.9677126 -1.4088781
-15.5511627 -2.7324872 -1.4251263
-12.7866096 -5.6762662 2.2859819
-9.5422888 -4.7103319 -0.2099713
-10.3733349 -2.2913249 -1.4166573
-11.8094654 -3.7759449 -1.3266641
-14.0341253 -2.4560921 -1.1489906
-9.6927137 -3.3072917 -1.4410996
-15.8774614 -2.9061320 0.8723085
-10.7139282 -6.6875534 -0.0859863
-11.6437006 -2.3151042 -0.4891034
-8.6847639 -4.6005030 -0.1800285
-17.1874371 -5.2510991 -1.1541914
-12.6199045 -7.5786886 2.2034333
-15.4922180 -4.5969062 -0.3702230
-12.2506924 -9.1014280 1.6895654
-11.6910009 -2.2624104 -0.4085919
-11.6380968 -5.3947182 -1.5615065
-11.0883741 -10.1173706 -1.1188451
-15.2565556 -4.3321743 -0.5254253
-11.6443758 -5.4235477 -1.5777774
-15.3488932 -3.5663373 0.1165736
-10.1360254 -10.8922691 0.4346909
-9.2111540 -3.1888385 -1.3519007
-9.1326799 -4.7056990 -0.7542825
-9.6954145 -2.6561639 -1.4201130
-9.5179806 -4.8280225 -0.6318279
-9.7414846 -2.1770875 -0.8822595
-16.4244308 -6.8632445 1.0669812
-17.0122147 -8.2382851 0.3404150
-15.6460762 -1.6441340 1.9787734
-9.2461300 -2.1580427 -0.5034752
-13.5258675 -2.5837927 -1.0289760
-10.9803038 -0.5930270 0.3868198
-15.3459606 -1.5434712 2.2439992
-21.7131786 -0.5127403 -0.3477827
-15.3096933 -4.3960724 -0.4241861
-15.7909117 -3.3452597 0.4999013
-14.6297579 -6.4429040 3.0471275
-11.4961348 -2.1628263 -0.9133241
-10.6820459 -6.6547546 -0.0797913
-11.8321810 -2.0188146 0.3572820
-8.7090263 -5.1402969 0.0328122
-15.4012051 -6.4986606 -0.4067420
-9.5755157 -5.1127787 0.1170002
-15.8809433 -3.0777476 2.6989636
-14.2917824 -8.9728527 2.8437212
-12.0447130 -1.9951428 0.3740737
-9.6187611 -4.4892859 -1.0786668
-10.1756277 -4.7453542 -1.4475288
-11.4677563 -1.8358126 -1.1133655
-16.2476788 -6.3274837 1.1004760
-17.1124496 -1.7575721 -0.8273919
-10.8346243 -3.8934155 -1.4348354
-13.3231897 -2.4513278 -0.6714295
-10.3587141 -4.3481274 -1.4330333
-9.8909769 -2.2419484 -1.4169703
-14.7137413 -2.1414347 2.7059612
-9.4121141 -3.7511644 -1.4358661
-13.4767647 -8.2864714 2.5276263
-13.2004766 -1.8366085 0.4785511
-9.4450130 -3.5791163 -1.4536432
-9.2131538 -1.7555956 0.4530753
-9.7076969 -2.2000973 -0.6998081
-14.6122561 -2.7418301 2.7838421
-9.8228426 -4.6569252 -0.6116803
-10.1545172 -3.0451756 -1.4249575
-14.8917055 -5.9721518 -0.2666668
-12.0498781 2.3728251 -0.4854890
-11.2903757 -1.3376126 -1.0947243
-11.4126606 2.7172210 -1.3866835
-12.3077517 3.9801807 0.0021827
-12.2579441 -0.7046266 -0.0137177
-11.9487133 5.4382668 1.1949525
-8.5098753 -4.6275072 0.1564592
-13.9757881 -8.7751493 -0.0903176
-8.5719337 -5.4922338 -0.2326592
-15.8660202 -2.2161660 0.5381258
-17.2852573 -4.0056839 0.7595383
-11.8463068 -2.2910442 -0.3020335
-15.2388172 -7.8182278 2.8360517
-15.9397335 -3.5381269 0.8892066
-16.2835732 -6.4768748 2.4802041
-12.8597307 -2.2429712 0.6579275
-9.3497629 -2.1578805 -1.3784945
-11.0505104 -4.7867508 -1.4207013
-11.7609167 -5.8608809 1.8887497
-10.0567064 -4.1171098 -1.4636774
-15.8561726 -1.6486204 0.0233642
-14.1162958 -5.1867795 -0.3351723
-15.2787418 -3.7924194 -0.0592522
5.8655562 -0.8134910 -0.0347908
-12.5618010 -5.4766741 -1.9456054
-9.0674067 -4.6527586 -0.7402995
-14.2045078 -2.3258839 -1.5898401
-11.1772680 -3.9446714 -1.4267626
-10.7947617 -2.0148938 -1.4178334
-8.5724354 -4.9630418 0.0231128
-17.2890987 -2.8057179 0.4152703
-8.9958830 -5.6852846 -0.0478782
-14.1740284 -2.7499731 0.8390591
-17.1305714 -0.4490683 0.4673164
-15.7745314 -6.8574853 -1.0531659
-15.7058258 -2.0892205 1.7977514
-9.7566233 -2.8938265 -1.4313711
-15.1823378 -3.1337702 -0.5604669
-9.3275108 -2.1609900 -1.3762795
-15.6304550 -4.0742092 0.3528489
-8.8678665 -2.1524050 -1.0757648
-14.9785395 -6.3220820 -0.3828525
-9.4211817 -4.5303302 0.3804303
-9.2626076 -4.1888194 -1.4585690
-9.0400715 -2.4371874 -1.2755998
-15.6283083 -4.8759933 -0.2812146
-11.5953436 -2.5013788 -0.5537848
-15.8095627 -4.4286227 0.2020757
-10.2837009 -2.6006062 -1.4157753
-9.7086277 -2.1887100 -0.3568006
-8.9399824 -4.6949563 -1.3317647
-8.3278351 -4.7431931 0.2518279
-15.4939775 -2.1504722 0.3499306
-17.4471416 -4.8669267 -0.5248410
-8.4367437 -4.9971824 -0.0507257
-11.4533873 -2.5901771 -1.3234621
-12.1174831 -0.0852678 0.6006950
-11.5718422 -1.9941875 0.4286568
-11.3873253 -0.7007778 -1.0399129
-11.4114103 -0.0432512 -1.0510178
-15.5183048 -2.7878590 -0.5511160
-10.9349689 -1.1444892 -1.4123287
-12.0065184 -0.6222037 0.3409322
-11.6511946 -1.7189820 0.0971638
-15.1879196 5.4554763 3.2021732
-14.0461969 -4.2070670 -0.7922456
-11.3482161 -1.3315175 -0.7505754
-11.5529270 -0.4171981 -0.9798670
-11.6401310 -2.6090393 -1.4201385
-11.4882917 -1.3393351 -1.0637127
-11.5040998 -2.1323004 -0.8136916
-13.2633266 -2.5409665 -0.4749213
-10.2672138 -0.6236334 -1.4196343
-13.8784380 -3.1739247 -1.0241235
-8.2135878 -4.7376184 0.0572930
-9.7813139 -2.4375703 -1.3444139
-9.6270695 -3.8535144 -1.5566573
-13.3494177 -5.9731107 2.5329199
-16.2741623 -6.3777394 1.0647206
-10.4717064 -5.2538519 0.1956147
-9.1144333 -3.3113875 -1.4412397
-10.8550711 -7.5256114 1.6432029
-13.0760736 -2.1961372 0.2952573
-15.5101614 -1.6244836 -0.7491093
-9.4366751 0.3543679 -1.2461818
-11.8474636 -0.2779814 -0.1025105
-12.0369167 2.3254864 -0.4673607
-9.1916819 4.8503976 -1.3295071
-9.2146482 5.5057259 0.2060913
-9.1186543 3.3018246 0.0866452
-9.3160915 3.1142442 -0.0243951
-9.3113041 2.9803922 -0.6730814
-9.9081793 5.5294108 0.6609299
-10.1739779 5.4796834 0.4989242
-14.9778585 -4.3348632 -0.5103530
-11.4982109 -1.8840016 -1.0003787
-13.4392567 -3.5354164 -0.7261859
-10.9056215 -4.7522311 -1.4327677
-15.5806713 -6.5396671 0.0971535
-18.7229500 2.9648678 3.7083492
-11.6244698 -1.6803056 -0.7685109
-16.6488209 -3.8399835 0.7351058
-17.3381958 3.2531226 2.6217306
-9.5244646 -2.1405931 0.3912488
-14.4166565 -1.8567791 0.8570676
-11.9575510 2.5832732 0.2775767
-10.5987310 5.4776773 -0.5533116
-14.2394791 -6.7622900 -0.8483905
-9.8906221 -4.5866356 -0.4062504
-12.2328062 -3.0848117 -1.4933476
-15.0585327 -3.5271637 -0.9408207
-11.9375601 -1.9735706 -0.5646574
-13.9346733 -4.6648798 -2.6192801
-12.5743818 -1.8319910 -0.5030054
-13.9097147 -3.4199543 -0.6850268
-15.0958567 -1.3164876 0.7809182
-11.5116692 -0.6388306 -1.1192658
-11.5270700 -0.4284966 -0.9021314
-18.0887890 4.7419086 3.2906201
-16.5915337 -6.5555553 1.0983909
-11.8012142 -1.6780180 -0.8428385
-14.6753378 -2.0331705 -1.0464392
-15.6093578 -3.7626228 0.6338079
-17.4899635 -6.5527740 2.8658631
-15.8026905 -3.7755959 0.6565841
-8.7833462 5.2239633 0.3921966
-9.4146042 2.1909101 -0.1348446
-10.9863586 5.5473485 -0.8692722
-11.0158138 -0.6112034 -1.4057076
-9.8366051 -2.1330993 0.3509684
-14.7910204 -2.3246684 0.9733897
-9.8525629 -0.9124256 0.3285140
-16.1584244 -1.9539285 -0.8266516
-9.7167606 -2.1926208 -0.1805528
-15.4736261 -2.8416896 2.3697000
-18.4499741 -7.0746493 3.0986834
-8.2144613 -4.2646499 -1.3886951
-4.9765906 -5.6729732 -0.4406334
-14.6998081 -6.2216978 3.0429668
-5.1134624 -5.2138190 1.2374988
-5.3857474 -5.0448799 -0.9897884
-8.6891928 -5.0850315 0.4536940
-7.2830248 -5.5926867 0.2984280
-6.0698066 -5.1487899 -1.2302866
-5.7847157 -5.4948521 -0.3514639
-5.7664056 -5.4935460 0.1178113
-7.7535195 -4.6836815 -1.2652075
-9.4901123 -4.1217990 -1.4557436
-9.8614607 -4.6601505 -0.4302965
-6.7206640 -4.7466540 -0.9745942
-6.9609075 -4.9536433 0.7017332
-7.5272775 -5.7254124 -0.5458955
-8.3620882 -4.9037766 0.3019495
-14.8438063 -6.9568052 -0.8920925
-5.2770352 -5.0190611 -1.2934889
-8.1737099 -5.0839667 0.4714492
-6.0490031 -5.2193332 -1.3909069
-7.2457957 -5.7819347 0.3389519
-7.7555556 -5.4847617 -0.1193596
-7.7442780 -5.5699534 -0.1107988
-9.5303478 -3.5990052 -1.4931227
-7.8189397 -4.5313730 -1.4180553
-10.0716333 -4.6824446 -1.0256188
-8.3845081 -5.5744057 -0.5904492
-7.7133069 -3.5756145 -1.4107397
-7.7824473 -3.5711730 -1.3879905
-7.8278313 -3.9333169 -1.4226276
-30.7587242 -17.5093307 0.9822719
-7.8604484 -5.0011978 1.3810406
-6.2758303 -5.5695982 0.2011136
-6.7252398 -4.8026481 1.2605407
-4.6773949 -5.3115988 -0.4218286
-5.1560736 -5.8768606 -0.1851545
-6.0452409 -5.0852265 0.9007010
-10.0180464 -2.3905184 -1.4216624
-12.6650877 -1.7021208 0.1900186
-11.9721746 0.7695973 0.3074147
-11.3564672 -0.5312587 -1.3837084
-10.2228231 0.6986506 -1.4303161
-11.2479773 1.3073438 -0.9771507
-12.0802994 2.4028814 -0.4828274
-16.1293602 2.5691807 2.5718169
-11.9934425 0.8178048 0.4356742
-10.9930172 -3.6792271 -1.1002046
-12.3610544 1.8545840 0.2795741
-16.1397114 3.9829223 1.8673729
-9.8897448 0.2533296 -1.3921292
-9.4065800 3.6977088 1.5225832
-11.5074034 -1.6628762 0.1688119
-13.8937149 4.9425058 0.6546187
-11.4558697 -1.8296857 -1.3726325
-5.1435895 -5.6554189 -0.5086107
-8.9283648 -4.6770806 -1.3211915
-14.4784498 -5.9333072 2.7954443
-8.6868629 -5.7340851 -0.2255346
-5.0846634 -5.8246942 -0.4095762
-6.3397303 -5.0830798 -0.4773118
-8.4014683 -4.2954907 -0.4557953
-5.3544583 -5.6060729 0.1161123
-6.1216240 -5.2761884 0.1303389
-17.3410587 -6.4699659 -0.2070371
-6.2449131 -4.9843802 -0.7521738
-5.4217706 -5.1161499 -0.5760936
-8.6374063 -5.0429239 0.6120570
-16.0209064 -6.6893010 1.0018651
-15.4707108 -3.3346357 -0.3619184
-15.8233557 -4.9945364 1.4116695
-9.0956726 -3.9880884 -1.4414952
-10.0059738 -4.1527305 -1.3897172
-15.9142447 -6.6429405 0.5282986
-15.7540131 -3.8339062 1.3281019
-7.4383883 -5.8177314 -0.5865340
-9.7095299 -4.7293797 0.4309261
-8.5288658 -4.4488978 -0.2830477
-7.9864879 -3.4000666 -1.4205041
-5.5800753 -6.3420420 0.3018117
-6.9867678 -4.9040966 1.1968936
-6.4472432 -4.6507196 1.2278380
-5.9763336 -5.3171139 0.2380221
-9.4168701 -4.7577972 0.1041383
-13.0461893 6.6999936 2.6711147
-11.0325727 2.2277036 -0.1740160
-10.9615545 5.6530132 2.1015561
-10.5654888 -2.5286384 -1.4126880
-15.8599834 -2.5417030 0.3869563
-15.3898754 -7.6232653 -0.5074725
-14.0155563 -4.4217558 -1.5429323
-9.9550428 -2.7933028 -1.4144309
-17.6558208 -0.9991350 2.5903025
-11.9893551 0.6112094 0.4409027
-10.7013645 -1.4977160 -0.3298073
-11.4603710 3.1191528 -0.2420492
-11.1529961 -1.0121106 -1.5897827
-11.4240904 1.8185298 -1.0172100
-9.4637060 -4.3427782 -1.4256222
-9.5177794 -4.6887350 -0.2080551
-8.5327435 -5.4303555 -0.2269667
-7.3833733 -5.5748506 -1.1518042
-14.3312826 -7.0616126 -0.8627095
-15.0199633 -5.1555018 -0.9196205
-6.8331366 -5.4726334 -1.2304169
-6.2006841 -6.8696032 -0.4788825
-8.4446249 -5.6235871 -0.4696557
-8.9342461 -4.6806159 -1.3236746
-17.8025570 -6.6703601 -0.2303874
-8.0500584 -5.8064547 -0.4195140
-8.3182821 -5.6610241 -0.6110094
-16.9598866 -6.3104115 -0.2079528
-8.5717955 -5.1563544 0.9751576
-7.1038327 -4.6983485 0.5503380
-9.8315353 -0.5089109 -1.4033922
-10.5028381 5.5422058 0.7685093
-11.9801178 -0.6694481 0.3735895
-9.2562304 3.3502221 -0.5747711
-9.4020748 0.3595571 -1.1572665
-9.4146061 1.0456312 -1.3845901
-9.0290670 4.4051661 1.8453838
-11.6109962 1.9277635 0.7472571
-10.0470190 0.0826573 -1.4292819
-9.3398533 2.6190810 0.5013909
-9.9707594 -1.8324391 -0.9561059
-11.7354040 -0.1134721 0.7159147
-11.5752726 0.6577963 -1.3263407
-9.3837776 -1.4676604 -1.1550877
-11.5287533 -1.6237141 -0.7819358
-11.9725199 -1.7403079 0.2321164
-13.1633749 0.0589685 -0.3560564
-9.4291887 -1.5040032 0.4114662
-11.0519323 -0.6525648 -1.4148891
-9.4548988 -0.9296930 -0.6064263
-11.6369534 -0.1994191 -0.4705019
-7.4837184 -5.0171943 1.3784579
-7.8484640 -3.9634807 -1.4434586
-15.7218666 -4.9142704 -0.3014197
-12.5470562 -2.5072165 -0.6404864
-15.2722101 -5.4224186 1.2640234
-14.8095703 -3.1440458 -0.5058938
-10.0946312 5.5422459 0.5214113
-9.2573681 3.1198087 -0.5299109
-11.2749882 5.5375986 0.8804567
-9.1375084 2.4903350 0.0633570
-11.2383032 5.3316674 2.3676841
-11.5719738 -0.1842043 0.6340451
-11.4856005 -2.0686424 -0.9316708
-10.2965708 4.1300526 -1.3619289
-11.3423281 0.0076022 -1.3680745
-9.3979549 3.9922981 -1.2110004
-8.3259325 -5.0128984 0.6333560
-7.7655888 -4.8577814 -1.1904122
-8.5551252 -5.0703349 1.4179201
-15.8754196 -5.6885548 -0.4180314
-15.7127790 -10.8295326 2.4433236
-10.5661201 -5.5401330 0.5340530
-15.4217052 -7.3731151 -0.9720101
-16.4935608 -7.9444714 0.2806652
-8.6608372 -5.6646562 -0.4590277
-7.4192624 -5.6882443 -1.1947341
-8.5784464 -5.5358858 -0.4358869
-7.8901696 -4.4655786 1.0611049
-5.3946853 -5.5895271 -0.0627508
-9.8744335 -3.6425116 -1.4201212
-10.4446354 -4.2773261 -1.4228531
-10.1499567 -4.1320219 -1.3843756
-15.3616991 -6.6416206 -0.3254713
-11.6236887 -1.5578300 -0.2944176
-11.4023752 -1.5576670 -1.0418941
-7.5591197 -3.7860107 -1.3961730
-7.6073866 -3.7481606 -1.4518932
-7.7314119 -4.7904401 -1.1593025
-6.0600696 -5.4825940 0.1225284
-9.8929701 -4.6666784 -1.3904281
-7.8378291 -4.9823146 0.8799227
-9.5146770 5.5729733 -0.3633265
-6.4908853 4.5287786 0.7822865
-9.5103340 5.4287338 -0.5162393
-9.3704004 1.4959430 -0.0915741
-10.0111609 3.7418242 -1.3908939
-10.1441450 4.7311134 0.0320953
-9.9214029 4.8637242 0.8510041
-9.1854324 1.3056167 -0.5127200
-10.5793104 5.6780691 0.3415822
-14.9723158 -4.7031736 -0.9256601
-9.4037085 -3.0598700 -1.4179683
-9.4063988 -4.0732522 -1.4360106
-15.4619131 -2.9810326 0.8256184
-11.4438839 -2.1583965 -1.0975157
-15.1570358 -5.4129114 0.0870175
-9.0811863 -4.6473746 0.4098338
-9.4394789 -4.6843319 0.0309545
-8.9749060 -4.5551939 0.3904165
-9.8357601 -4.6647406 -0.8292918
-14.8124981 -5.9960561 -0.0991544
-10.7968998 -3.8850825 -1.4186735
-11.4807100 -2.1586080 -1.1362897
-10.6342630 5.5713038 0.8274015
-9.3812656 5.6919947 -0.2322734
-11.1523552 4.9825110 0.0114981
-9.4987764 0.3201188 -1.3949431
-10.0211411 5.5738411 -0.9788103
-9.5531368 5.0129428 -1.4017638
-10.5855160 5.5366311 -1.4124355
-10.4715900 5.4862900 0.1994201
-9.3053026 3.3919709 -0.6747832
-11.3800735 -1.7307382 0.2328490
-15.2394753 -3.0142078 -0.4945848
-10.8758116 -4.7335696 -1.4197979
-13.6508389 -2.4556549 -0.5223423
-9.3372374 -4.7104197 0.1073800
-10.2553864 -2.9376028 -1.4239675
-9.3355970 -4.5742006 0.0785313
-5.6062713 -5.5951009 -0.5746820
-6.0718555 -5.1565089 -1.2360369
-7.1782913 -4.9325857 0.5961061
-12.3785734 -4.3745928 -0.2840896
-12.1506176 4.1805553 -0.1638937
-7.4839988 -4.0315328 -1.4205903
-8.7519226 -5.8565006 -0.0873113
-9.3067780 -3.5159757 -1.3836528
-9.6905642 -4.7156363 0.4289749
-8.3942337 -4.5302153 -1.5136131
-9.4339123 1.8426740 -0.1440356
-9.4157209 2.2222452 -0.4770207
-9.3412323 1.5586568 -0.6638447
-7.7347269 1.4971322 0.2453476
-9.3548326 1.6493180 -0.6260560
-10.2537260 2.6410720 -1.3475510
-10.4929714 2.8430591 -1.3886123
-11.0574112 5.4791126 -0.9182667
-7.7499228 1.8220361 0.5187134
-9.3097763 3.2385221 -1.1511043
-10.1644630 5.5522947 -0.2832968
-10.6934595 5.5240097 -1.3005505
-11.1764450 4.0684218 -1.3517724
-9.4582262 2.2697840 -1.3544700
-9.6109142 5.5199113 0.7857179
-13.2223063 -1.8937227 0.2225859
-9.8189516 -2.1763813 -0.9281026
-9.7800026 -2.1870501 0.2424822
-15.1779032 -2.2899847 0.9680879
-8.1748800 -6.0929675 -0.4419967
-14.6608028 -3.5768085 -0.1773019
-16.2045135 -1.5990772 2.1541140
-11.3859987 -2.6378002 -1.4921731
-15.5367813 -1.6826789 0.0786935
-12.0668116 -2.1064899 0.3202998
-12.7939930 -2.0339072 0.3751865
-11.8463812 -1.6293167 -0.8854662
-11.3388796 -1.1582679 -1.3991878
-9.0942020 -4.6440859 -0.7285936
-17.4464588 -9.1121788 -1.1550536
-15.7305861 2.4447343 0.1927940
-11.4759674 3.2044644 -0.2298653
-15.5734777 3.3308835 0.1477048
-6.3053246 -4.9642301 -0.4758780
-9.8623705 -4.6764636 -0.8377851
-7.3793368 -3.2706439 -1.4388987
-8.4365444 -4.3910360 -0.7843205
-14.9486151 -6.2512898 3.0513122
-9.6583090 -2.7062142 -1.5110343
-9.4359331 -3.7565954 -1.4475253
-9.8714714 -2.1609352 -0.3802601
-11.9038095 -9.2241802 2.9188459
-7.3526554 -3.6388092 -1.4355160
-7.8767052 -5.7927079 0.0271839
-6.1835594 -4.4134245 -0.0412035
-8.4770384 -4.8644319 0.6038125
-9.3397675 -0.1263761 -0.0640057
-11.4140692 2.7242539 -1.3868791
-9.3994064 1.0292162 -1.4769826
-9.3525686 -0.2763376 -0.6485428
-9.5783157 -3.1906145 -1.4461660
-9.8478470 -4.6644454 -1.2080780
-6.0992680 -5.2246575 -0.5278782
-8.6816072 -5.3241439 -0.4045442
-8.9913054 -1.5668374 -0.5272650
-5.5503087 -5.0250325 -1.0620757
-7.5435185 -4.7666759 -1.2481947
-7.2238951 -3.5905211 -1.4941702
-5.3949876 -4.9968815 -0.9672185
-10.6659651 -2.4726031 -1.4001104
-11.5762682 -3.1866360 -1.4931053
-11.4001884 -2.8873017 -1.4288292
-8.3368015 -4.8831611 -0.5768261
-6.0834250 -6.0127883 0.0835067
-6.2899861 -5.5074081 0.2195621
-6.1212940 -5.3218098 0.3418365
-8.4425411 -4.3935223 -0.7921871
-6.9325948 -5.9295168 -0.3553188
-6.7687173 -6.0843053 -0.2385342
-5.3571315 -4.6741009 -0.5247182
-5.7147470 -4.3281083 -0.1988994
-9.6031904 -4.6385956 0.3997815
-9.1272449 -3.6492507 -1.4252728
-9.9107428 -5.2443752 -0.5257952
-9.7327003 -2.1863511 -0.3618405
-9.1966085 -4.7295675 0.4195020
-10.0700493 5.5160604 -0.5021086
-7.4337916 2.9030986 0.5271160
-11.5152531 2.3496561 -0.4894273
-17.1718502 1.1517458 1.9145956
-11.9659576 2.0881808 0.1616433
-17.7309227 1.0614148 2.0504422
-9.5186787 1.9136603 -0.0749571
-12.3440294 2.6307421 -0.1385556
-11.6092815 3.2545209 -0.0212587
-15.1806784 -2.5904858 0.7085631
-11.3516846 1.8501718 -1.3958784
-18.1290760 -0.0779618 0.4948166
-17.4994316 6.1473284 3.2003605
-19.9933167 0.6449122 0.6282527
-11.5719576 -1.6232431 0.3088516
-9.3205671 2.9729578 -0.6012192
-9.1658878 4.2598233 -0.4351645
-10.3209085 5.4184208 -1.3202304
-11.2183857 5.5945230 -1.3987896
-9.5101252 5.6241169 -0.6379274
-10.8575983 4.8849978 0.1844911
-11.4585743 -0.5812288 -1.1043071
-10.6915722 5.5391622 -1.3119266
-8.8095694 -4.5891366 -1.3801315
-11.2592621 5.6806097 1.2380632
-8.1935978 5.2742982 -0.7069684
-9.7484293 6.5180917 0.0489548
-11.8601837 3.8818848 0.6445900
-10.2170258 -2.0957212 -0.8467326
-16.7250061 -5.9350586 3.8082137
-9.1185217 -4.2289605 -1.5490644
-8.6834097 -5.2075553 1.4003212
-6.7251396 -4.7315211 1.4323362
-7.6726265 -4.6895285 -0.5900920
-7.8225198 -3.9235148 -1.4191160
-9.1760931 -5.1757684 0.2553701
-6.1086125 -4.0313973 -1.6188016
-9.8680410 -4.6714625 -0.8249349
-6.1404848 -4.9336958 -0.5203434
-14.5115309 -2.7085731 -0.0121612
-6.1148686 -4.9811611 1.1820543
-7.3412571 -4.8728514 0.6742431
-9.3756113 4.3161922 -0.8829648
-11.3365088 -0.2281319 -1.3657722
-5.0849562 -5.4013395 -0.6379207
-5.1513963 -5.1381207 -0.5945332
-5.6909847 -2.1547039 -0.5471038
-13.5796871 -8.3574142 1.8467324
-8.4293966 -3.7548399 -1.3825861
-7.1821265 -5.9986625 -0.3645983
-7.1712689 -5.9679790 -0.6264024
-14.4837542 -5.3335238 3.2038708
-15.8675756 -5.0866299 2.1411142
-6.7753010 -5.5363431 -0.6029570
-4.6357465 -5.0966139 0.2789873
-6.6059728 -3.6658332 -1.4080135
-5.2788963 -5.8257365 -0.1916599
-15.0681925 -9.6690836 2.2760568
-6.1071701 -3.6797137 -1.4455519
-11.8951702 1.9034061 0.1989560
-11.9258499 5.8188391 2.4961166
-11.9093084 -0.1705334 -0.0981862
-11.9959183 0.0391863 0.5156424
-9.8566322 5.4663544 -1.3805001
-11.4979210 0.9508947 -0.4965451
-11.2751570 5.5111694 -0.8227270
-10.8385420 1.3597164 -1.4378144
-10.9116583 2.9217513 0.3865405
-11.7586775 -3.2612338 -1.3899444
-15.9316492 -7.6663060 -1.0474797
-9.1648026 -4.6710777 -0.7402077
-9.7094049 -2.1957686 -0.3491036
-4.9359250 -5.4925056 0.1090828
-5.7874002 -5.1722116 0.9088463
-6.2780395 -5.4461765 0.1137463
-6.9960542 -1.6827863 -0.1896073
-9.8795452 -4.6693783 -1.4002815
-4.9010081 -4.6264601 -1.3339690
-8.8305607 -4.5695057 -1.2233248
-6.6285510 -5.1902461 -1.3618295
-4.7437716 -6.2809563 -0.2062820
-7.0247984 -1.7309819 -0.1869227
-4.9396091 -4.0072188 -0.5000352
-4.8262730 -4.8339977 -1.4242382
-4.7875977 -5.4849515 -1.1770574
-16.3129826 -9.6403494 1.6366875
-7.0831995 -5.6425614 0.1087630
-6.5205746 -5.2204194 0.1036149
-7.1795483 -4.9217162 0.8705155
-7.6641903 -4.9026232 0.5812637
-6.0209126 -5.4489026 -0.0012136
-9.6171694 -3.4129450 -1.5592300
-14.9403877 -2.4371738 1.3476578
-9.7834148 -2.1691587 -0.8779148
-16.8100014 1.2737468 1.8001658
-15.6152534 3.3584790 0.1828416
-15.6154404 2.4487495 0.1860079
-11.4933844 2.5997772 -0.4445320
-11.5032825 2.5979147 -0.4483154
-15.2926064 -4.4557567 -0.7893644
-26.7636490 0.5305952 2.8094141
-13.7267170 -1.8938785 0.6707246
-13.7596130 -5.0052762 0.0435570
-5.3816104 -5.2323956 -1.3544732
-4.4043632 -5.9186006 -0.6623273
-6.3619099 -5.0949502 -0.6300043
-4.9092779 -4.7497015 -1.3618553
-8.7064962 -5.7776251 -0.0949452
-8.5910368 -5.1666036 0.9656764
-5.9746523 -5.0139852 1.1924918
-7.2793794 -2.7116067 -0.8115458
-9.5283165 -1.6266003 -0.9736340
-5.6211734 -5.5076308 -0.3299731
-5.3592782 -5.3026600 0.2378729
-7.2186460 -1.1971965 -0.4062485
-7.0130796 -3.7147908 -1.4093996
-12.4083605 -1.2160785 -0.9099619
-12.3324366 1.7647694 0.2494479
-11.5156775 0.6709586 -0.9003958
-17.7372246 4.7026005 2.6160564
-11.3395681 -1.1725484 -1.3932760
-13.2411165 -2.6800611 -1.2471918
-15.4576778 -2.6738334 1.3814244
-11.3849258 -1.3097998 -0.6250582
-8.4443169 -6.0108857 0.7886531
-6.9446692 -3.0843387 -1.4603256
-8.2211380 -4.9155231 1.2088494
-8.0210094 -4.9312139 0.8951631
-6.0525007 -5.1677947 -1.3703940
-8.9438229 -4.7715778 0.4333514
-6.0644894 -4.9244332 0.6928815
-6.4914422 -3.6213317 -1.2167370
-6.8888693 -6.1037226 0.2030805
-6.5815554 -5.4840775 -0.6131797
-7.4621887 -3.2037325 -1.4336056
-6.7391362 -5.6942410 0.0657786
-5.5529981 -5.0601602 -1.0726261
-7.3596191 -1.2945657 -0.2692090
-9.0880623 -4.6583633 -0.7406826
-5.3657160 -5.5647144 0.1157910
-7.5241599 -4.5941081 -0.8361095
-5.6918597 -5.2214541 -0.5743201
-7.1739378 -3.4534068 -1.4284512
-7.5285730 -4.7757397 -1.2557650
-12.3041496 -9.7614899 2.4646688
-12.0102777 0.2568329 0.2902562
-17.4045219 2.8641343 2.9564342
-11.3135777 -1.0230319 -1.3621969
-11.6884575 3.8604250 0.5731667
-9.3869486 -0.0534975 -0.0849047
-10.9651842 5.4486508 -0.8342291
-4.8483405 -5.2716155 -0.5326980
-7.2840719 -4.8998876 0.6867066
-8.7638674 -4.6666479 -0.1868054
-8.7697001 -5.7225280 0.0783479
-16.7937412 -3.6838725 0.3987382
-7.9130049 -6.1383824 -0.4023564
-10.1605654 -3.4730859 -1.4019059
-8.6232290 -4.9384985 -0.3019046
-15.3989878 -3.1524444 0.0810697
-16.1084213 -3.5738144 0.4373047
-10.8630428 -2.4464424 -1.4309038
-9.4346533 4.8561468 -0.1455301
-10.3313208 5.4771624 -1.3518565
-9.3421793 3.0998023 -0.0812878
-9.3015728 4.8398781 -0.3465371
-9.3304710 3.2475741 -0.9676483
-5.1377392 -5.5899277 0.2930766
-8.5717363 -5.7294736 0.1868222
-5.9623880 -5.1708746 0.9008272
-6.3385086 -5.1548452 1.6432357
-6.7337580 -1.3049638 -0.6231686
-22.9485226 -21.0299129 3.1388621
-10.3015966 -4.3167467 -1.4142463
-14.9582510 -5.6690311 0.4773827
-10.4942293 -3.5218973 -1.5807394
-10.7682562 -0.7232730 0.3494808
-9.2555304 -4.7981324 -1.3501866
-19.6186790 -7.4315658 1.2786213
-15.6768560 -5.5700650 0.8584694
-15.3597670 -5.8190022 2.7992151
-15.8687019 -2.4656487 1.0833586
-11.6335659 -2.2606921 0.7707326
-15.4251442 -5.4003482 0.5745347
-9.4204712 -2.9785695 -1.4093227
-16.2780266 -3.5281637 0.9048529
-13.3964205 -5.3491635 2.5525901
-9.1984339 -1.7605855 0.4482800
-4.9784212 -5.1113410 -0.4985135
-11.8621206 -1.9240054 -0.5074188
-12.1381998 -2.8659275 -1.3672291
-8.1714401 -4.9711819 0.6356395
-11.4451180 4.7038407 -0.2388389
-11.4574537 3.0229237 -0.2911188
-10.1765032 4.6438365 -0.2367133
-5.3176279 -5.0818114 1.1593839
-8.6713486 -5.6149883 0.0749136
-8.1081409 -4.9337907 -1.4233471
-8.0449247 -4.7869010 -1.3637978
-6.4737597 -4.0518112 -1.3897835
-7.4542823 -5.2795053 -0.6152350
-8.3170958 -4.8400426 -0.6583711
-6.1694841 -3.9703846 -1.4275564
-5.8364439 -5.8578410 -0.5695122
-9.0958595 -1.9172091 0.3627588
-17.2778320 -11.8044062 2.8227003
-6.2334394 -4.8904653 -0.2666713
-17.7846870 -13.6689796 2.9380476
-8.4851704 -5.7323809 0.0969522
-8.4396639 -6.3032780 0.0557370
-15.9279633 -11.5780067 2.4494669
-8.5845490 -5.0582762 0.6330312
-5.3087320 -5.6357284 -0.1892492
-4.8796277 -7.3085623 -0.8247951
-8.5286312 -4.8931475 -0.4869850
-6.0563030 -5.8980780 -0.3532173
-5.5398464 -5.3330002 1.2559108
-11.8577480 4.2414026 0.4845012
-11.2932444 4.8774428 -1.4384528
-10.1787453 5.8713961 -0.2044070
-11.2818098 4.6687412 0.4213887
-11.7819948 5.3986359 -0.9490631
-15.2583609 -3.6033254 -0.4185276
-14.9380817 -5.4678421 0.0261137
-12.0244617 -0.1463091 0.3075416
-11.2854290 -0.9422678 -1.2544025
-12.0383711 -0.0056495 0.4476214
-11.6062202 -1.3723859 -0.7158753
-15.9996958 -4.3979659 0.1239142
-15.4748402 -4.7831988 -0.2707137
-16.4802933 -9.9497252 -0.4726472
-15.7260723 -6.7001290 -0.2420804
-18.4832096 -13.1652327 -0.0265726
-15.3682709 -6.8286595 -0.9735984
-18.2258377 -10.6346684 -0.7497066
-15.6527987 -6.3795915 -0.3572249
-15.4778585 -6.1992559 -0.4509535
-17.8024254 -5.6483784 -0.2720292
-15.9131365 -3.2434788 0.4024443
-18.9715252 -11.6769447 -0.3375356
-15.3661814 -3.5713930 0.1147813
-15.8885193 -5.5294428 0.0084146
-16.4767170 -3.2595060 0.8798957
-15.2518806 -3.5986085 -0.1752429
-15.1695452 -3.6116452 -0.8957227
-15.4247122 -1.4827280 -0.7047626
-17.5990582 -9.9396229 -0.6336257
-15.3421946 -2.3666809 -0.6975557
-18.8846016 0.1702124 -0.4156385
-15.7163610 -5.5669403 -0.4691877
-14.9452782 -1.8406895 0.0811759
-14.7020483 -5.2906137 -1.3840377
-15.2757759 -4.4380779 -0.5100077
-15.5836935 -2.1318181 0.6497508
-15.8355246 -2.5743773 0.0184777
-15.9441500 -3.3777452 0.4569899
-15.3257446 -1.8609762 -1.3360263
-14.9781542 -3.4364634 -1.4243535
-16.0608883 -4.1915674 0.3903435
-6.4647307 -8.1935177 -0.4732634
-3.5513434 -10.1700449 -0.2241943
-2.5895975 -10.6505356 -0.2522699
-1.6285396 -10.0146370 0.5232702
-4.1226902 -10.1418562 0.3583699
-4.9120426 -10.1240730 -0.6079010
-4.2243190 -10.1431313 -0.3759766
-5.3092213 -10.3418941 0.3662715
-4.5153708 -8.6333418 -0.3941923
-4.3836727 -8.8165979 -0.3041364
-3.5964372 -10.1353817 -0.2236619
-7.4245601 -6.7931137 0.3120439
-5.7408996 -7.4844832 -1.3797526
3.0654144 -9.1613598 -1.3158612
-11.9593849 4.7825556 -0.0219718
-12.2820215 5.3340263 -0.4172661
-11.4828281 4.6396112 -0.8543121
-10.2166862 -10.1387424 0.0263893
-12.6119757 -8.7433128 -1.4025511
-15.0113640 -9.0975561 -1.4777223
-13.3255272 -9.1661100 -1.1430795
-6.0476446 -6.7895203 -0.1129652
-3.6351876 -10.1230001 -0.2261750
-9.7701483 -4.9874992 0.0641667
-8.2496309 -7.9824333 -1.5248572
-9.3001041 -6.7598019 0.2717152
2.0791483 -10.2516661 0.7459348
-4.8450503 -10.0524750 0.3391396
-4.4930696 -10.1811810 -0.3903764
0.5147807 -10.3911219 -0.0500328
-6.2361336 -6.8123569 0.1642846
-4.5350628 -9.5278616 -0.3614535
-4.3231368 -6.7748113 0.4906549
-4.7346301 -6.6649108 0.1244835
-5.0646429 -7.2951694 -1.2363313
-6.0088191 -7.0624185 0.5178797
-16.4333229 -7.7768650 0.3558879
-10.9735632 -6.8041158 -0.6660323
-11.6315861 -3.2833896 -1.4138238
